# 3D point list with one line of data per point:
#   POINT3D_ID, X, Y, Z, R, G, B, ERROR, TRACK[] as (IMAGE_ID, POINT2D_IDX)
# Number of points: 340, mean track length: 4.363004756131679
12884908489 -0.3053376266631548 1.8184705845736766 -0.12018018092228101 157 132 97 0 3 6601 4 7382 22 7344 23 8675
12884908514 -0.2683325574261192 1.879886914109794 0.28384949170980367 111 90 65 0 3 6626 4 6411 22 7354 23 8686 40 7123 58 6238
12884908516 -0.22902890520439442 1.8788894488608243 -0.4092033207153778 110 85 57 0 3 6628 4 4766 22 4877 23 6161
12884908620 -0.3674708381460959 2.0565345791334617 -0.12735904547880048 35 27 12 0 3 6732 4 6536 22 6527 23 7805 40 6380
12884908630 -0.3914376004425363 2.0605506150888275 -0.25899033345209316 73 58 39 0 3 6742 4 7489 22 7456 60 6227 78 2644
103079217029 -0.3153747281233654 2.102235074230065 -0.46656498588438666 101 82 59 0 3 6770 4 4974 22 6560 23 7841 24 1925 40 5027 42 4897 58 2527 60 4806
12884908817 -0.8239215302031484 2.3381295229250716 0.13879610343131724 137 106 65 0 3 6929 4 6718 22 7586
12884908818 -1.2985755286384981 2.289833778027918 0.8294999881061513 0 0 0 0 3 6930 22 7597
12884908819 -1.3004061496539836 2.289067400108835 0.8271113329700843 170 131 73 0 3 6931 22 7598 40 6478
12884908832 -1.3017657469171673 2.3109051728165606 0.8360099825096068 0 0 0 0 3 6944 22 6759
12884908897 -1.3784656052026636 2.396125019094829 0.7771370339121112 0 0 0 0 3 7009 22 6822
12884909215 36.66812247180654 -3.0136279211314565 2.7068180437568237 83 67 44 0 3 7327 4 5908 5 5909 6 6748 23 7173 43 7354 61 4834 63 6566 79 9052 81 5346 99 7558 101 7890
25769812078 36.19354330264309 0.5517542116100794 2.4194466035554596 47 34 14 0 4 7189 6 8302 24 6807 43 8568 61 8450 63 7891 79 9169 81 8529 99 8885 101 7993
25769812079 36.19354330264315 0.5517542116100806 2.4194466035554596 47 34 14 0 4 7190 6 8303 24 6808 43 8569 61 8449 63 7890 79 9170 81 8530 99 8886 101 7994
38654714004 0.19216680431781288 1.2742925595972758 0.42063715383998496 163 135 97 0 3 7450 4 7170 5 7286 6 8322 8 5253 9 8340 22 7155 23 8487 24 6927 25 7400 26 4149 27 5358 42 7025 43 8824 44 6054 45 7211 60 5780 61 8837 62 6731 64 6653 65 7289 66 6230 78 4271 80 6384 82 6293 84 6086 98 6198 100 6047 102 6024 115 6272 116 6928 117 7157
38654715709 0.1506297570412783 1.3257654278114683 0.3751020337470128 139 112 74 0 3 7466 4 7899 5 7959 6 9119 8 6361 9 10045 22 7841 23 9103 24 7607 25 8980 26 5952 42 7657 43 9336 60 7488 61 9385 62 8110 63 8795 64 7538 66 6249 67 12900 80 7510 82 7510 84 6095 102 7212 116 7630 118 7210
12884909507 -0.23765880147668944 1.7468813689677216 -0.1558677046188549 23 18 6 0 3 7619 4 6332 5 6421 22 7317 23 8646
257698044767 -0.26564064820820615 1.7761000922962102 -0.17126392009250763 132 106 72 0 3 7638 4 8013 5 7446 6 7273 22 7942 25 7680 40 7734 60 7007 78 7387 80 6641 98 7512
30064772490 -0.3059006530515583 1.8270003839897582 -0.14867681243415184 39 31 18 0 3 7657 4 8022 5 7468 22 7350 23 9202 24 6060 25 7714 42 7228 60 7035 80 6668 98 6502 115 6629
12884909643 -0.38208226471321743 2.1530543405864813 -0.3569620786126194 49 35 18 0 3 7755 4 7518 5 5086 22 7483 23 8793
12884909761 -1.3528726424426079 2.355994889661227 0.7653252056611829 0 0 0 0 3 7873 22 7634
317827583993 -1.3351931722132195 2.3705677867512365 0.7101733589608811 211 177 107 0 60 7304 96 6443 112 5220 114 7119 124 5803
12884909955 36.82675685163371 -3.3717132483931436 2.755561382916695 42 33 14 0 3 8067 4 7058 5 7178 6 9026 23 8358 43 8459 61 8329 63 8504 79 9690 81 8418 99 8768 101 8534
111669157290 0.17322904436248845 1.4001160269263253 0.44197390119211416 89 65 38 0 3 8184 4 8313 5 8345 22 8242 23 9442 24 8253 26 7594 42 8075 44 8300 45 8868 61 9399 62 8424 63 9098 64 8311 80 8166 82 8671 100 8337 116 8043
274877914519 0.16945186042934673 1.4368224258015192 0.5090853478271655 98 73 44 0 3 8189 4 7926 5 7981 6 8358 22 7863 23 9125 24 6959 25 8430 42 7678 43 9353 44 7273 45 8123 60 7499 61 9407 62 8123 64 6732 80 7541 82 8279 100 7965
12884910169 -0.3119891766498265 1.8634876636118614 -0.18122129294218214 105 87 59 0 3 8281 4 8371 22 8308 23 9503
12884910186 -0.31094784030966927 1.953046383587959 -0.3706381040859834 107 80 52 0 3 8298 4 8039 5 7510 22 7983 23 9230
171798699945 -0.4633169174901007 2.0310821861956643 0.1971654528455849 56 43 27 0 3 8322 4 8403 22 7998 23 9534 40 7771 58 7908 96 7383
12884910239 -0.34420280609911047 2.1640709855289706 -0.48443606922263716 90 69 45 0 3 8351 4 8075 5 7571 42 7313
12884910242 -0.41957579173182147 2.1834080296188927 -0.3305710387946494 46 38 26 0 3 8354 4 8081 22 8032 23 9274
12884910420 37.531071819126296 -4.490229783822494 3.4729602553388483 159 136 99 0 3 8532 4 7819 5 7889 23 9027 43 9096 61 9077 63 8476 79 10089 81 9046 99 9904 101 8844
12884910431 38.2213933067972 -4.402532035599964 5.009721650161417 41 32 16 0 3 8543 4 8259 23 9388 61 9513 63 8893 79 10092
30064772196 -0.03149632198742853 1.5435294564049173 -0.051093248125897196 68 53 36 0 3 8636 4 7952 5 7363 6 4930 22 8266 23 9460 24 5894 25 5958 38 6663 40 8040 42 7717 43 9376 44 4444 45 5924 56 7132 58 7832 60 7538 61 9709 62 7684 63 8351 64 2949 76 7239 78 7894 80 7585 82 6364 94 7576 96 7974 98 8033 100 7300 112 7836 114 8452 115 8439 116 7660 117 6061 124 7828
12884910541 0.001864553828769839 1.66823269610568 0.2451381287989518 159 132 94 0 3 8653 4 8587 22 8499 23 9677
12884910542 0.001864553828770141 1.66823269610568 0.245138128798952 159 132 94 0 3 8654 4 8586 22 8498 23 9676
94489288852 -0.6248783834960885 2.0749537693475637 0.2481251257756575 68 50 25 0 3 8719 4 8635 22 8340 23 9720 40 8117
12884910608 -0.6208903628528926 2.0760922106232083 0.25015525126160076 72 54 28 0 3 8720 4 8636 22 8341 23 9721
463856472002 -1.286826722416151 2.3051458976955614 0.8095387083162213 204 173 117 0 60 8036 76 7343 78 8063 94 7644 96 7423 112 7912 123 6763 124 6809
12884910777 -0.2499795622757513 1.7179968731488438 -0.27612190703175954 31 25 13 0 3 8889 4 8596 22 8515 23 9680
12884910896 -0.23288278414998465 1.7220727263455096 -0.15583126666671143 45 37 24 0 3 9008 4 8770 5 8777 6 9880 22 8656 23 9824 42 8484 60 8266 80 8892
12884910967 37.51550359535158 -4.020050649379384 3.897940766848546 57 48 31 0 3 9079 4 8716 5 8743 23 9785 43 9872 61 9905 63 9279 79 10468 81 9794 99 10290
12884902071 38.025018198209914 -4.660099263209762 4.600434469392907 101 82 59 0 3 183 5 271 61 557 79 1610
12884902410 37.03756483563006 -2.9486859709852475 3.2776131876245413 90 77 51 0 3 522 5 565 6 285 61 849 79 1883
12884902507 21.690978339446048 -1.9291887825093859 9.477224827411108 41 34 14 0 3 619 59 1284 81 1907 97 1928
184683602158 37.18100363100955 -4.205232899380011 3.6746034521746784 33 26 13 0 3 7296 5 7153 23 8327 43 8430 61 8303 63 7752 79 9008 81 8394 99 8749 101 7859
184683602196 36.97628503620046 -3.08638601507718 3.0395335168026847 54 42 23 0 3 8076 5 7187 43 8468 61 8339 79 9698 99 8781
12884903520 39.72636455523102 2.4609960539953524 35.47216712711757 121 121 80 0 3 1632 20 721 21 2885
12884903553 38.373126977010095 2.634380392413548 34.035182299660725 0 0 0 0 3 1665 21 2917
12884908305 61.922671680466834 0.5185866249318946 55.19842427785715 0 0 0 0 3 6417 21 5699
12884908581 -0.3370972467948068 1.965974720768196 -0.31212179579461885 102 76 49 0 3 6693 20 4819 21 6288
12884902739 30.31665025922413 -2.9494706738389387 23.771383465872972 33 28 7 0 3 851 21 2053 59 1475
12884905763 30.03956747778112 -5.934331451988273 23.24842614952057 58 49 28 0 3 3875 21 5020 59 5116 77 7283 79 5569 97 5644 113 7510
107374185182 36.238660476695514 -1.3930161551160738 2.451215375164216 73 58 36 0 6 550 61 1135 63 819 79 2176 99 1380 101 1476
12884902694 0.5217578754746595 1.085771611855165 0.14307697703343705 64 52 35 0 58 736 59 3708 60 786 61 3124 78 998 98 924 114 1639
184683595750 36.04715089854065 -1.0725265399448238 2.4812028428860136 59 44 19 0 3 840 6 608 43 2022 61 1194 63 873 79 2260 81 2126 99 1443 101 5005
25769804505 36.153632244421246 -0.370396458436126 2.6580756597458675 47 35 14 0 6 729 24 70 61 1321 63 979 79 2405 99 1574 101 1615
30064771677 36.26585057160921 0.6771667354562939 2.5617062038128373 73 57 35 0 24 221 61 1487 79 2624 101 1761
30064774943 0.2653607588730649 1.3606054788917825 -0.14872947867603745 32 22 8 0 3 1183 4 4209 5 1344 22 4353 23 2667 24 864 43 3731
25769804750 36.04454691261765 1.12622662778435 2.710256410320149 57 40 16 0 4 1213 23 2695 43 2340 61 1573 81 2442 99 1856 101 1820
17179870402 0.33021377857445294 1.3737053405199762 -0.03641802919386561 119 94 65 0 3 1219 4 1218 22 1285 23 2696
184683596196 36.20511954676024 1.8620210037580385 2.7875933299323177 74 54 25 0 23 2799 24 416 43 2468 61 1721 62 103 63 1300 79 2875 101 5228
12884903245 25.300114695028185 0.05765527542135573 29.91412155179369 17 19 3 0 3 1357 22 605 23 5577
12884903259 25.344164935998105 0.1365962532063491 30.183499952210717 129 132 57 0 3 1371 22 609 23 2674
163208758456 0.041852405994686516 1.504429056412309 -0.16015694098101738 143 117 81 0 3 1472 38 1208 40 4385 56 1720 58 1658 60 1639 61 6664 76 1707 78 1880 94 1836 96 1565 98 1777 112 1975 114 2540 115 2030 116 1312 124 4225
17179870573 0.1623805922003222 1.4791524247339045 0.5412136020885107 33 21 6 0 3 1488 4 1389 5 1513 22 1442 23 2882 24 996 25 3307
30064771968 36.35361804336236 2.760465733092592 2.7594026935458067 0 0 0 0 7 896 24 545
12884903724 0.19931064347494673 1.741347635667295 -0.565379151150286 111 88 64 0 3 1836 22 1872 23 3292
12884903738 -0.25605887748065304 1.7054483963743658 -0.2241067549851577 92 70 45 0 3 1850 22 1930 23 3296
17179871004 -0.12616739168328814 1.7572016587685202 0.11952967629949485 56 39 17 0 3 1927 4 1820 22 1933 23 3351 40 1937
12884903853 16.00868704975158 3.476643176102487 0.473629346728439 66 55 34 0 3 1965 22 1464 23 6034
17179873862 -0.08754790030589613 1.8005621050129623 -0.46270971671054845 90 73 51 0 3 1972 4 4678 22 4779 23 6070 40 4750 60 2083 78 2365 96 2064 114 2982
12884903866 -0.2700879832312994 1.7913241896181045 -0.28174004903431754 67 49 26 0 3 1978 4 1904 22 2084 23 3433
12884903883 17.728192539472953 3.833799796488578 0.5447632801699038 0 0 0 0 3 1995 22 1518
12884904018 -0.2801363153396129 1.890568024080691 -0.35867685676232336 99 75 48 0 3 2130 22 2265 23 3585
12884904181 -0.3807630545279622 1.9972916189635996 -0.2769662470725885 50 38 20 0 3 2293 22 2414 23 3768
12884904182 -0.3807630545279627 1.9972916189635996 -0.27696624707258866 50 38 20 0 3 2294 22 2413 23 3767
12884904201 -1.4545385294780346 1.8447624059227106 0.11612066616567951 121 126 77 0 3 2313 4 2311 23 3815
12884904232 -0.5526591864287967 2.039772546136724 0.2603384316256282 106 82 54 0 3 2344 4 4927 22 5023 23 7803
12884904244 -0.4826687196758887 2.0552702100497404 0.16461207439517184 90 74 52 0 3 2356 22 2466 23 3841
12884904253 -0.4805918553508396 2.061315851033774 0.15378380454717566 43 30 15 0 3 2365 22 5042 23 6353
12884904254 -0.48059185535083926 2.061315851033774 0.1537838045471758 43 30 15 0 3 2366 22 5041 23 6354
12884904346 -0.33311028120929165 2.1244860359153384 -0.44741795957290126 91 71 52 0 3 2458 22 2581 23 6408
171798692860 0.14601026979066592 1.2573954338760844 0.31521718942566757 40 30 16 0 3 4314 4 4136 5 4215 6 4640 22 4276 23 5509 24 3811 25 5726 40 1020 42 4115 43 6393 44 4249 45 3189 60 1180 61 6379 62 5304 65 5897 78 1358 80 1314 82 4405 116 1228
12884906297 0.2424631494118237 1.3476548268931194 0.6267742181026243 65 49 31 0 3 4409 22 6105 23 5597
17179870483 0.20703482472438012 1.4234076156883573 -0.1933490143045294 165 135 93 0 3 4429 4 1299 22 4412 23 5640
12884906354 0.029334434033322726 1.4350320859303418 0.07000931159786616 171 149 113 0 3 4466 4 6133 5 4412 6 1237 22 4432 23 5668 24 975 40 4248 42 4298 43 6576 58 1456 63 6114 78 4520 80 4630 82 1422 98 4600 114 5016 116 4141 117 4251
17179875313 0.026129067090930228 1.4284227946867845 0.19783885277356067 61 49 35 0 3 4473 4 6129 5 6202 6 7049 8 3604 22 4428 23 5666 24 5836 25 7476 26 4261 27 5456 42 6068 43 7994 44 6155 45 7284 60 4223 61 6555 62 6802 63 7498 64 5399 65 7338 80 4636 82 6344 98 4577 102 6020 115 4697 116 5922
339302422737 36.09996309303003 2.487339609806966 2.4713173670745454 52 37 14 0 4 4361 6 4745 24 521 43 5837 62 3961 79 6353 81 2649 99 2079 101 5280
12884906558 20.312153968494258 1.920983424999639 25.05817739065142 73 77 26 0 3 4670 22 5996 23 7472
17179875445 0.006834965290681467 1.6387145395320617 -0.3634298536608501 27 21 9 0 3 4694 4 6261 22 6274 23 7532 43 8109 63 7588
184683596539 35.72473648977641 3.812593040170918 2.131045005119251 60 49 32 0 23 3113 43 2811 61 2028 62 4096 63 1615 79 6500 81 2832 99 2317 101 5402
180388628272 -0.17077466565891544 1.6722834216016271 -0.13605395427704312 183 157 118 0 3 4753 4 1701 22 1846 23 3220 40 1943 42 1840 58 1937 60 1944 63 3918 78 2183 80 1876 96 1779 98 2105 100 1340 114 2771 115 4962 116 1595 124 4316
17179873732 -0.1244027125725352 1.6785835606357065 0.4419005922907546 119 85 49 0 3 4763 4 4548 22 4634 23 5917
17179873785 -0.24184119117701122 1.7122169944795516 -0.11208133153195654 40 30 17 0 3 4809 4 4601 22 4707 23 5980 40 4619 60 2039
17179875565 -0.22679970471090072 1.8225964365790184 -0.02233359539634164 14 11 3 0 3 4901 4 6381 22 6371 23 7656
180388633088 -1.4441742113730063 1.8128605632307995 0.12895975672408372 65 73 29 0 3 5061 4 6513 5 6616 42 6656 60 5157 78 3077 80 3118 98 3428
12884908130 4.400540909070595 0.42667690735800984 5.479777999440593 83 68 44 0 3 6242 22 5802 23 7243
274877914424 0.4006402917991454 1.2250823747139046 0.019668107858535403 52 37 21 0 3 6262 4 7150 22 7138 23 8464 42 6999 60 5741 61 7867 62 7572 64 7480 80 6296 82 7416 100 5934 116 5722 117 5866 118 5951
17179875246 0.39854325306881216 1.310332427061581 0.055552110635301 108 84 59 0 3 6315 4 6062 22 7165 23 7354 42 5943 43 7902 60 5777 61 7900 80 6335 98 6173 100 5961 115 6220 116 6884 117 7078
25769808383 36.175642547850934 0.8548131448637449 2.5445818320819824 82 63 38 0 4 6080 6 4607 24 5573 43 5670 61 7261 63 6760 79 8042 81 5680 99 5665 101 6959
184683601320 36.42217345443887 2.7796897832448937 2.975472273304141 115 93 60 0 3 6433 4 6185 23 7466 43 7592 61 7383
17179876572 -0.23693595893587038 1.8486821171630705 -0.034257982448134924 92 72 47 0 3 6609 4 7388 22 7348 23 8682
12884908559 -0.32649391985176834 1.9384260860619362 -0.31670715960867657 82 61 35 0 3 6671 22 4941 23 6234 42 4809
528280981529 -0.5018738654665732 2.0431437589149226 0.02276200303406889 85 70 41 0 3 6731 22 6533 23 7809 40 6372 42 4919 58 4866 60 4785 76 4773 96 4708 98 2588 112 5239 114 5460 123 4121 124 4408
85899350878 -0.6831791958787851 2.203986176926553 0.2442645736696919 17 11 1 0 3 6840 20 4958 22 5201
12884908773 -1.0470625663672066 2.2612636531310333 0.8191787164406086 64 53 40 0 3 6885 22 6683 58 4865
12884909304 36.24080260441287 -0.5385304306623245 2.7937266692036444 132 107 62 0 3 7416 4 7144 23 8461
17179876418 0.210446672307994 1.415349127709905 -0.2171374521942401 19 12 3 0 3 7477 4 7234 22 7209 23 8526
17179876463 0.02318952948319736 1.5533316690838024 -0.34394494057036124 37 28 14 0 3 7525 4 7279 22 7252 23 8558
17179877137 0.0769487459714594 1.578544165526484 0.46200310485786295 131 103 54 0 3 7547 4 7953 22 7887 23 9144
266287979570 35.69851024346145 3.640489637147093 2.6767856520396514 51 37 18 0 24 6898 43 7638 61 8567 62 7218 63 7963 79 9249 81 8634 99 9005 101 8101
12884909464 33.8347135482715 3.896705672311255 2.186686294110666 0 0 0 0 3 7576 22 7173
12884909556 -0.23360263468903067 1.8692774460369055 0.002811792598095681 25 19 9 0 3 7668 22 7956 23 9210
257698044090 -0.7903605511589462 2.19399891295555 0.3091723572126949 44 33 18 0 22 7524 40 7252 58 6410 60 6330 76 6392 78 5115 96 4733 112 5228 114 5488 124 5851
12884910016 35.38548553094151 -0.7565683291633901 2.546610984267826 0 0 0 0 3 8128 22 7013
12884910052 0.20578611383835568 1.2794984490533439 0.47065843547918973 86 61 34 0 3 8164 22 7831 40 6928
528280984980 -0.3731300201150112 1.9560015561504989 0.20209004685679355 81 65 47 0 3 8297 4 8388 6 9657 7 7582 22 8319 23 9516 24 8064 25 9361 40 7756 42 8163 44 6443 58 7889 60 7629 62 8219 64 6961 76 7887 78 7979 80 8303 82 6608 94 7634 96 8019 98 8099 112 7892 114 8497 115 8155 123 7572 124 7846
12884910569 -0.20408162254717357 1.8365975406986674 0.04622899412824009 118 89 56 0 3 8681 22 8522 23 9687
21474845073 0.15918254026102568 1.4760587183139615 0.4399991566981717 40 28 16 0 3 8870 5 8593 6 9865 8 7746 22 8482 23 9661 24 8256 25 9492 26 7964 42 8358 43 9823 44 8545 45 9024 60 8124 61 9865 62 8607 63 9247 64 8321 80 8867 82 8280 98 8368 100 8344 115 8407 116 8261 117 8292
17179877969 -0.24577421315719372 1.9241222209649687 -0.43520999242680125 86 69 46 0 3 9116 4 8785 22 8757 23 9913 40 8480
17179869920 0.563408008937136 1.02358516809496 0.23352056650000125 92 74 48 0 3 723 4 736 23 2271
17179870026 0.31293284444346625 1.1200676774167708 0.3196509264857533 63 47 27 0 3 867 4 842 23 2391 40 3927 42 754 43 3343 58 3911 60 3907 62 2341 78 4181 80 1024 96 657 98 4250 100 819 114 4655 115 4292 116 3935 117 1021
17179870372 0.2777727632965915 1.3541334111719234 0.062259653880535594 89 69 48 0 3 1203 4 1188 23 2672
94489282021 0.12930164513718892 1.520134003112088 0.484297598237306 102 79 54 0 3 1567 4 1471 5 1591 6 1338 22 1509 23 2949 24 1038 25 3350 42 1458 43 4026 45 3536 63 3612
17179870718 0.14747110397769492 1.5640059723385988 0.41597852881961095 15 8 0 0 3 1608 4 1534 23 3009
12884903570 16.711025233942777 1.830924115396299 23.832893297463173 0 0 0 0 3 1682 59 2582
85899347719 0.22013044851619698 1.676643842776516 -0.5515828638911441 12 8 1 0 3 1741 20 1799 23 3185 40 1955
17179870927 0.015375825533836209 1.7262288651172013 0.3470804737725801 29 16 3 0 3 1858 4 1743 23 3275
17179874128 -0.5882987230665666 2.055988702896551 0.24380848651829815 115 93 65 0 3 2374 4 4944 23 6361
180388627123 0.5487544622145094 1.119462399850644 0.21675540112964947 23 16 5 0 3 4220 4 4039 23 5430 42 691 43 3281
17179875212 0.25527361043751085 1.2273499812054327 0.5545286046284893 117 89 59 0 3 4303 4 6028 5 6078 22 4237 23 5487 42 5914 43 7879 60 3982 62 6708 80 6356 98 4311 115 4374 116 5824 117 6065
94489281730 0.31318017307258256 1.3075588454041014 -0.1265804751722522 74 57 37 0 38 878 42 1039 56 1339 58 4237 59 6907 60 4085 61 6419 62 2494 76 4290 80 4468 94 1562 96 4160 98 6204 100 828 110 1791 114 6668 115 6274 117 889
94489287691 0.18231113233848384 1.339050457645067 0.42396896435427833 58 36 13 0 3 4399 4 7904 22 7179 23 8508
12884906526 36.17106773592021 3.326007895949993 3.025452549617054 98 79 50 0 3 4638 23 3035 63 1520
335007455248 0.104722920869864 1.5850953864445274 0.4175567031378626 23 15 6 0 3 4658 23 5803 60 5889 78 6160 98 6293
17179875403 0.055599488401253484 1.5853155702100978 0.28343147468502616 91 66 42 0 3 4659 4 6219 5 7375 6 8408 7 6881 22 6233 23 7501 24 7000 25 8475 26 6069 42 6125 43 8073 44 6236 45 8156 60 4304 61 8102 62 6872 63 8358 80 6507 82 6409
17179876601 -0.2944085987477203 1.923333200346048 0.28998329029966613 30 21 6 0 3 5002 4 7417 23 8706 40 6244 58 6258 76 6258 94 4835
94489285427 -0.364845694018015 1.9648819583203965 0.38976866452064207 95 76 54 0 3 5034 22 4915 23 7740 40 4721
94489287035 -0.5021537726505756 2.0469524134133152 0.21704665607344417 44 32 16 0 3 5114 4 6534 20 4818 22 6523 23 7804 40 4872 58 2237 76 2046 96 1926 114 2915 124 1822
94489287043 -0.49375554086678664 2.056077579406666 0.1761248209755343 85 69 50 0 3 5117 4 4932 22 6531 23 6347
17179872930 37.501803151860734 -4.245312066495863 3.1193646109642934 116 92 58 0 3 5989 4 3746 5 344 6 61 23 5183 61 4739 79 7766
94489287592 0.5429955868450665 1.0502346344492222 0.1830095561564339 137 114 80 0 3 6188 4 7094 22 7080 23 8420
94489287617 19.60880793216831 1.5785993656931296 25.000624281740528 71 73 22 0 3 6472 22 7105 23 7449
94489287771 0.05917837881259229 1.6117185413354265 0.4437402668728006 13 10 3 0 3 6495 4 7286 22 7259 23 8580
94489287788 0.048947640794671274 1.6789568248965405 0.3487610904449171 95 65 38 0 3 6535 4 7976 22 7276 23 8610
94489287815 -0.14787856533434446 1.7335574813701309 0.04438300701564762 24 19 9 0 3 6555 4 7336 22 7303 23 8637
257698039813 -0.2517958025467882 1.8581211280809886 0.3744958370283095 83 64 41 0 3 6611 4 6393 22 6380 23 7675 40 6189 60 2067 76 4502 78 2156 94 4769 96 1586 112 4981 124 4077
94489286907 -0.2558074794979427 1.8790064167706337 0.2548999889118678 19 12 2 0 3 6623 4 7396 22 6395 23 8687 40 6221 58 6245 112 5043
94489286950 -0.3157676942231731 1.929223722594941 -0.11193304666528416 22 16 5 0 3 6663 4 7423 22 6438 23 7724
94489288825 -0.3686389845415608 1.9427021487083258 0.24619828181492007 146 114 71 0 3 6669 4 8035 22 8313 23 9226
94489287078 -0.6362839457337838 2.0931070932686966 0.21591045815790336 20 14 4 0 3 6777 4 6565 20 4876 21 6380 22 6566 23 7847 40 4928 60 2509
180388633478 0.1248983425859003 1.30026393417286 0.17426634499311602 73 57 41 0 42 7046 43 7923 61 9393 63 7436
21474840740 0.11306383366110075 1.2982857191463892 0.176105276404442 94 73 51 0 3 7452 5 4260 23 7348
94489288382 0.19472902831094022 1.4544415947119649 -0.18248377944366337 52 39 23 0 3 7490 4 7247 22 7870 23 8535
94489287585 24.8705351558436 0.48685990531312756 32.006672017811134 43 48 14 0 3 7504 22 7073 23 8522
94489287904 -0.3141911919606601 1.9075025307280495 -0.15461424591957465 48 39 26 0 3 7679 4 7418 22 7392 23 8707 60 6155 98 6531
17179875637 -0.36450606373102706 1.9230385051625187 -0.22318499070881487 69 52 30 0 3 7690 4 6453 23 8710
94489289053 -0.40136845896294077 1.9803924933698964 0.29319716870057166 113 90 63 0 3 8301 4 8395 22 8541 23 9526
17179877811 -0.45163819113439935 1.9971341246662802 0.32918707773539524 97 75 51 0 3 8308 4 8627 23 9529
17179877717 36.82709728268406 -3.854127586291677 2.816765631469304 147 124 86 0 3 8548 4 8533 5 8284 23 9390 99 9908
17179877521 -0.0016240718100461566 1.6488032879839216 -0.39147868786233575 20 15 3 0 3 8646 4 8337 23 9154
17179877899 30.67978546956437 -4.304660730639893 23.46210322556248 45 40 20 0 3 8981 4 8715 23 9787
94489289322 -0.11536895484686588 1.6382063452202686 0.06457642738076355 66 53 33 0 3 9107 22 8810 23 9955
17179878030 41.813854081752716 -3.948878497756625 5.331166335098569 111 112 55 0 3 9159 4 8846 23 9882 61 9999
12884902690 0.5340726007825337 1.0579365601884623 0.38706350423323527 100 102 72 0 40 3842 58 3772 76 3892
12884903734 -0.023377692512601852 1.7120529351258278 0.3871077054165299 0 0 0 0 3 1846 40 4455
12884903828 11.499786179059232 2.800876642529984 20.396347714507392 0 0 0 0 59 6227 79 8344
12884903852 -0.28613767256546807 1.7744786189270612 -0.13207676010130806 141 121 90 0 3 1964 40 2131 60 2126
528280983060 -0.8455121697452381 2.2374748285108232 0.6022090944181505 62 49 32 0 40 4970 42 7393 58 4867 60 6327 76 4685 78 6571 80 6943 82 7879 96 6334 98 7674 100 7626 112 5132 114 7001 115 7709 116 7338 117 6586 124 6815
85899348584 -1.500511711140724 2.2877071516748964 0.7544021328678887 16 11 2 0 3 2974 20 2664 40 2822
12884906704 -0.01348357706221942 1.7339230764274227 0.382894749062804 36 24 12 0 3 4816 40 4474 58 4470
94489286917 -0.243265969590211 1.8816887097006432 0.05777650139385484 140 111 73 0 3 4959 5 6498 6 1877 22 6405 23 7695 24 1627 25 3799 40 4714 42 6322 58 2061 60 6109 62 3444 78 2297 98 2265
12884909596 -0.33793251167946 2.002062615053145 -0.08755986076025933 38 30 18 0 3 7708 40 6354 58 4834
12884909632 -0.6871106250874784 2.1129501511057462 0.5774666744198502 51 39 25 0 3 7744 40 7196 58 6323
180388632629 -0.17224092537500438 1.6512172484612762 -0.10392764983314741 75 59 41 0 3 8651 4 7303 22 7911 23 9159 40 8062 42 6197 58 7852 60 7558 62 6931 63 7652 76 7880 78 7933 80 6588 94 8228 96 8003 98 7478 100 4381 112 7884 114 8479 115 8116 116 6022 124 7853
12884910918 -0.383245863947449 2.1052198211230575 -0.16920843606757413 17 15 10 0 3 9030 40 8291 58 8265
85899354390 -0.2796607051809374 2.0832246492871147 -0.5108047570256987 95 76 51 0 3 9119 20 8470 40 8487 58 8560
403726934887 0.03336882579090537 1.4617678243262346 0.01255287352254559 144 121 85 0 3 9166 6 9591 24 8007 25 9000 40 8519 42 8476 44 7897 58 8663 60 8356 63 9251 76 8702 78 8661 80 9029 94 9063 96 8845 98 8843 100 8749 112 9362 114 9250 115 8914 116 8530 117 8683
257698046133 -0.3319350024270118 2.0655000470822484 -0.4173937131280901 55 42 27 0 3 9177 40 8526 58 8628 60 8373 78 8682 96 8860 98 8861 114 9204
12884908352 16.83551774508741 1.4778229432098533 22.95034226838155 0 0 0 0 41 8308 59 7926
12884909491 9.413882663040432 2.224616302288914 20.68935480962368 0 0 0 0 59 9111 77 8851
17179869273 14.6882902921064 -1.6591971453320467 -1.7454240353556392 52 43 16 0 4 89 5 141 23 1663 61 4762
17179869316 14.647020936675927 -1.549579716418849 -1.7810158239825786 58 47 19 0 4 132 5 192 23 1702 43 1610 45 1791 61 703 63 603 81 2022 83 1379 99 1268 101 1462
339302417795 38.39700522884642 -5.876732581912074 5.651579456690766 94 75 47 0 4 155 5 35 63 4103 79 1411 81 1452
17179869395 37.82811669222463 -5.027038250640425 -1.0783835159029345 141 118 84 0 4 211 5 212 23 1788 43 1457 61 442 63 288 81 1591 99 710
17179869398 37.90340828705983 -5.0569384874125864 -0.6230125862424403 145 120 81 0 4 214 5 199 61 441 63 277 81 1581 99 715
17179869477 37.82076132362192 -4.709892371007666 -0.45730973412981013 152 127 88 0 4 293 5 277 6 32 23 1850 43 1499 63 4242 81 1620 101 4727
17179869482 37.91540143639158 -5.021512150061399 4.8372993986853094 154 129 94 0 4 298 5 184 23 1885 61 496 63 237 79 1541 81 1570 99 757
17179869493 37.58195312829633 -4.579830483457467 -0.8535851554683458 125 103 69 0 4 309 5 301 6 4109 23 5116 43 1512 61 521 63 363 81 1637 99 782 101 4739
17179869528 37.44235902946007 -4.4315350749191555 -0.30098193958873776 119 95 60 0 4 344 5 327 6 4116 23 5129 43 1534 61 4709 63 4257 81 5238 99 5125 101 6691
17179869570 35.674490734790126 -4.023828736987504 0.6290254572328647 59 49 33 0 4 386 5 349 61 600 63 409 99 856 101 1073
17179869585 35.8527799036152 -3.9673359092029306 0.486326059140844 32 24 8 0 4 401 5 372 23 1937 61 618 63 421 101 1080
17179869607 37.21519085812038 -4.021117727214085 -0.19539711304449162 61 47 24 0 4 423 5 396 6 4143 63 434
17179869732 36.716237000071715 -3.4358742435168788 2.2270818549087754 87 67 40 0 4 548 5 472 23 2069 99 977 101 1163
17179869759 36.89025968933547 -3.341460164946547 2.3514952563478917 91 74 49 0 4 575 5 486 6 4197 61 4800 63 4342 101 4819
17179869865 37.014977394834865 -2.712526916183177 3.1078856556824075 104 88 60 0 4 681 5 3907 23 2201 43 1802 63 615
17179869876 21.67303846034391 -1.3995192584279146 9.638523661835299 43 35 15 0 4 692 5 502 43 1836 81 2046
17179869912 36.04273041951952 -2.139110300602245 1.5241896890765199 77 62 41 0 5 688 6 441 7 3331 43 1867 61 988 63 713 81 1981 99 1240
17179869919 0.32729468336871204 1.0349276017578246 0.462594364026989 85 68 49 0 4 735 5 817 22 4015 23 2281
17179869931 21.619197469282962 -1.1238040143255499 9.66694035964027 64 56 36 0 4 747 5 596 81 2105
94489281434 0.23795176708626825 1.1466714073910584 0.39694970232265453 219 212 194 0 5 1009 42 818 43 3405 58 845 60 972 62 2427 63 2952 78 1133 80 1105 96 675 98 1212 100 907 114 1730 115 4366 116 1083 117 1148 124 680
360777253968 0.23775417609944421 1.164249583330489 0.45975328708982804 58 44 26 0 4 903 5 1038 6 842 8 517 22 961 23 2454 24 604 25 2956 42 840 43 3429 44 4152 62 2452 82 4360 84 1104 102 4113
17179870164 0.2063606078953868 1.2140582038819228 0.40696155241181964 114 93 68 0 4 980 5 1111 6 917 22 1053 23 2515 24 682 43 3520 80 1221 100 970 117 1221
257698038886 0.18484655966613284 1.243708352774842 0.37832739896188006 126 105 77 0 4 1037 5 4202 6 4624 8 3475 9 5622 22 1106 24 3795 26 1163 27 2765 42 4098 43 3576 44 4226 45 5717 46 9645 60 1126 62 5286 64 2705 65 5889 66 1487 67 9104 80 1278 82 1298 100 1011 116 4048
17179870234 0.1505703046925384 1.2545620312087726 0.25031691615939855 66 52 37 0 4 1050 5 1184 22 1120 23 2543 42 1038 43 3602 61 3567 63 3182 116 1211
17179870235 43.898392657646646 -0.13078145608314024 -8.397754023822978 64 65 51 0 4 1051 5 1091 43 2181 63 1068 81 2248 99 1513
17179870238 0.44887611643210085 1.2538592640856254 0.0648421293662282 36 23 8 0 4 1054 5 1189 22 1099 23 2544 42 4068 43 6334 61 6308 62 5174 63 5829
17179870242 0.2339667598388741 1.258525424645341 0.48984022644518915 117 88 60 0 4 1058 5 1182 6 987
30064771922 0.12772277320320496 1.2713137857441583 0.281539301434959 99 79 57 0 4 1067 5 4234 6 4658 8 660 24 766 25 5732 42 4130 43 6412 63 5947 65 3678
17179870330 42.525075178528006 0.7176485271126369 -7.918334812967549 106 104 84 0 4 1146 5 1194 45 2397 99 1676
38654711354 0.23631113900490303 1.3303978131320278 0.5993833126697595 127 99 68 0 4 1160 5 1290 6 1074 8 710 9 5690 22 1228 24 808 25 3118 26 1249 27 2838 42 1080 43 3675 44 1290 45 3281 61 3576 62 2671 64 2850 65 6004 80 1331 100 1115
21474840805 0.06738992881659846 1.3563289263730647 0.22316570571932393 56 43 28 0 4 1193 5 4325 6 4730 8 749 22 4355 23 2681 24 876 25 5786 42 4215 43 6497 44 1337 45 3322 60 1362 61 6480 62 2756 63 6031 80 1481 82 1399 98 1569 100 1124 116 1313
25769804935 0.056845916300295514 1.371161497883817 0.20825762769171025 58 45 31 0 4 1210 5 1361 6 1159 22 1310 24 893 42 1302 43 3842 63 3420
38654715739 0.19928177768390093 1.3792305847140045 0.5334745462004759 37 27 15 0 4 1242 5 1366 6 1153 8 6370 9 10075 24 3909 25 5800 26 5971 27 6909 42 4188 43 6484 61 3662 62 5376 63 6018 64 6705 80 1404 82 4507 116 4118
197568502761 0.2784007048216184 1.381203776327315 0.6836422797426014 27 15 2 0 4 1252 5 1356 6 1144 8 759 9 5729 24 867 25 3173 42 1130 43 3736 44 1361 45 3349 46 7145 62 2707 64 2921 65 3899 67 9469
17179870450 0.10037815683062419 1.3975677820603478 0.30911333673450536 141 116 85 0 4 1266 5 4363 42 1310 43 3864
197568502724 0.177107511903115 1.4096886027969622 0.4573301689054976 129 104 76 0 4 1281 5 4371 6 4761 8 795 9 5765 22 1345 24 3928 25 5828 26 1371 27 2919 43 3846 44 1406 45 5823 46 7108 60 1308 61 3744 62 2782 63 6053 64 2914 65 3902 66 1688 67 9402 80 1452 82 1470 84 1372 100 1146 102 1192 116 1324 117 1394
197568502843 0.2468262831429698 1.4473207196950608 0.6672559316740607 126 99 71 0 4 1345 5 1441 6 4793 8 3597 9 5787 23 2825 24 945 25 3265 26 1424 27 2953 42 1263 43 3868 44 1464 45 5863 46 7227 62 2806 64 2991 67 9545
17179870548 0.03879275574272212 1.4615326460526321 0.2432483828797088 44 32 15 0 4 1364 5 1501 6 1266 24 997 25 3300 42 1436 43 6594 44 1494 45 3449 62 2894 63 3560 64 2946
25769812167 -0.010971119049639383 1.4990426857076908 0.17508801655645975 32 23 12 0 4 1437 5 4479 6 8391 9 10119 25 7516 27 6979 42 6099 43 8040 62 6854 63 6173 64 5442 80 4685 82 4537
17179870646 0.12547199183931348 1.5149371436507475 0.3699668415804529 38 23 8 0 4 1462 5 4500 22 1504 23 2929
94489282061 0.0013891341747695684 1.5143120916635808 0.1849499280641685 88 69 46 0 4 1472 5 1607 6 1348 22 1549 23 2930 24 1064 25 3359 42 1531 43 4101 45 3525 61 4072 62 2981 63 3664
17179870696 0.11112848392225111 1.5447309534177938 0.44838916480104285 18 10 0 0 4 1512 5 1640 22 1557 23 2989 42 1499 43 4078 60 1510
17179870710 -0.07170940012789871 1.5463031462832013 0.09250764524529743 51 40 26 0 4 1526 5 1657 6 1390 25 3399 43 4200 63 3742
17179870711 -0.07895698229763892 1.5462471941701492 0.06295902289898708 80 66 47 0 4 1527 5 1665 22 1614 23 2995
17179870806 0.05514096091506745 1.630986940658351 0.29106929514819735 99 72 44 0 4 1622 5 1757 22 1695 23 3128
180388628132 0.010261233872448339 1.6181682976908602 -0.34108453926102394 33 23 9 0 4 1623 5 1758 22 1732 23 3105 42 1700 43 4271 62 3003 63 6234
17179870856 -0.06341853171158483 1.6686353108843788 0.5457848301902318 27 18 7 0 4 1672 5 1815 6 1514 22 1764 25 3514 63 3914
17179870937 -0.2109870027537563 1.7037044882084256 -0.05240802437215537 41 31 12 0 4 1753 5 1911 22 1893 42 1905 63 4009
25769809026 -0.3098896572319215 1.8956396211562385 0.2090795159679664 149 118 76 0 4 2041 5 2208 6 5250 22 2199 23 3578 24 4390 42 4732 78 2290
17179871520 -0.381913409722935 2.069230932335645 -0.1554813714030351 26 19 7 0 4 2336 5 2436 23 3861
17179871555 -0.6118484643615644 2.084665921630329 0.3676514548999005 95 73 48 0 4 2371 5 2502 6 2368 23 3909 24 2038
94489283140 -0.3491639478328239 2.157715565137452 -0.4279772373017685 37 27 13 0 4 2464 5 2534 22 2628 23 3984
17179871918 -0.9883317493009877 2.282803184905424 0.7426576337234144 127 103 78 0 4 2734 5 2879 6 2852 42 2984
98784249519 38.36703536369654 -5.560742026695452 -1.2637376898293098 69 54 31 0 4 3610 5 119 23 5037 43 1390 61 4607 63 228 81 1516 99 619 101 856
17179872799 38.087600431584626 -5.467375210381138 -1.007072385571282 102 81 51 0 4 3615 5 3665 61 4612 63 4176 81 1527 99 5023
17179872874 14.712315559590726 -1.1982184534766527 -1.7022796132392295 112 98 63 0 4 3690 5 3783 6 4155 23 5105 61 4855 63 4479 81 5547 99 5476
21474836790 37.490421181059006 -4.506723827553795 -0.5432100114212357 154 129 90 0 4 3700 5 3749 6 4111 23 1875 43 1523 61 4703 81 1643 99 5121 101 4743
184683599095 14.619058675111424 -1.0473914903166144 -1.8909345936359645 79 67 40 0 4 3718 5 421 23 7090 43 5367 45 1946 63 4518 81 5564 83 4757 99 5515 101 5051
17179872935 37.03675997032953 -3.9962320820230146 0.16915245308982912 49 39 21 0 4 3751 5 3794 6 4142 43 5284 61 625 63 4290 81 1707 99 5168 101 4772
17179872965 14.628207869672433 -0.8149539346618354 -1.783833263815479 62 51 23 0 4 3781 5 3859 7 3300 23 5188 43 5412 45 6762 61 4955 63 4560 81 5597 99 5557 101 5088
17179872982 37.163482932286946 -3.830271172877318 3.920262736666081 32 25 7 0 4 3798 5 3808 6 6702 23 5223 61 679 79 5642 99 929 101 4781
25769808029 14.678724182922279 -0.7085105894929554 -1.764440086037239 56 43 16 0 4 3819 5 550 6 4253 23 2024 43 1903 45 2038 61 4977 63 883 81 2282 83 4817 99 1622 101 1704
115964121880 14.6110545372867 -0.7003321745271142 -1.8483422350520742 95 81 54 0 4 3820 5 551 23 5210 43 1907 45 5061 61 4983 63 886 81 2284 83 4822 99 1625 101 1706
115964121879 14.608163566693372 -0.7006257202279863 -1.8479663992678632 94 80 53 0 4 3821 5 552 7 3334 23 5211 43 1906 45 5060 61 4984 63 885 81 2283 83 4821 99 1624 101 1705
17179873021 43.833090694582296 -3.885562087350726 -6.236632386817266 15 17 4 0 4 3837 5 559 61 709 99 901
17179873156 0.290257815078473 1.072699767273165 0.439419985097484 110 92 75 0 4 3972 5 886 6 699 22 4062 24 485 42 3930 43 3275 62 2321
17179873220 0.2462672722603043 1.1306997119057574 0.45904192979620356 68 53 37 0 4 4036 5 4118 6 4519 22 4131 24 3684 42 5872 44 4123 45 5649 60 3914 62 5189 117 4197
94489284652 0.5392817965361161 1.1502338985988345 0.19100664286361269 23 15 3 0 4 4064 5 4153 22 4140 42 3958 61 6183
360777258936 0.23681232421495532 1.182818491006691 0.46938944620684636 123 99 73 0 4 4084 5 6053 6 6928 8 3442 9 5568 22 6009 23 5464 24 5716 25 7366 26 4089 27 5293 42 5893 43 7864 44 6005 45 7170 60 3960 61 7851 62 6687 64 6628 65 7253 66 4480 67 9046 78 1148 80 6339 82 6257 98 4302 100 6019 102 6005 115 4381 116 5812 117 6042
17179873283 42.67076558723248 -0.7171683816729233 -6.478651528760272 49 50 36 0 4 4099 5 998 43 2106 61 5073
193273533539 44.52581396041444 -0.17323928276799203 -8.24647789988559 8 9 1 0 4 4133 5 4172 43 5594 45 5219 81 5601 83 6548 99 5534
17179873385 42.688894511924175 0.8874617345470215 -8.006004733222039 10 11 1 0 4 4201 43 2302 63 1188 81 2381 83 1708 99 1702
17179873387 42.35379019585124 0.9444152987750507 -7.640170440209443 12 14 2 0 4 4203 5 1230 45 2409 83 1712 99 1710
17179873388 42.26481608110206 0.9964739543368667 -6.52209395331487 60 62 43 0 4 4204 5 4243 7 3736 43 5678 45 5276 99 5625
17179873389 42.34756375722905 0.9959481856090786 -6.538982614180983 60 62 43 0 4 4205 5 4244 7 3737 43 5679 45 5277 101 5126
17179873419 42.353624087227765 1.408114829936402 -6.795504526094872 10 12 1 0 4 4235 5 1283 7 785 43 2371 45 5294 61 5287 99 5660
17179873423 42.19728843155589 1.4605859074093914 -7.757364763789889 65 66 51 0 4 4239 43 2382 81 2447 83 1778 99 5662
17179873453 0.08871391430851976 1.4331186968629077 0.30666561098010553 58 41 21 0 4 4269 5 4399 6 4794 8 3602 22 4423 24 5834 25 5848 27 5462 42 4264 43 6554 44 6157 45 5845 60 1423 61 3868 62 5420 63 6097 64 5411 80 1540 100 1170
17179873468 0.027007335052290783 1.4402340005420757 0.04456524761876223 75 59 38 0 4 4284 5 1462 42 4304 43 6579 63 3519
17179873537 0.04671043945477109 1.4919641869698017 -0.13351866772120785 143 117 80 0 4 4353 5 1560 23 5732
94489282174 0.009360854753773308 1.6003821855008127 0.21203161473162593 30 19 6 0 4 4467 5 6311 6 7158 22 1662 23 3089 24 4083 25 7584
94489285099 0.040728437978293716 1.632124260823729 0.2671658711838813 60 42 22 0 4 4495 5 6331 6 7171 7 4017 22 4587 23 5857 24 5928 42 4449 43 6746 44 4534 60 1679 61 6723 62 5552 63 7601 82 4607 116 1515
197568507114 -0.05236280407271358 1.6762695345545913 0.15334646023557297 91 68 39 0 4 4537 5 6371 6 7195 7 6907 8 5423 22 4628 23 5913 24 7033 25 8500 26 6111 27 7053 42 6180 44 6288 45 8179 46 11498 60 4406 62 6922 63 8397 67 13011 80 4790 82 6432 98 4748 100 6200 115 2179 116 6008
94489285157 -0.08790480118528902 1.6983917879039578 0.525498871023062 25 16 4 0 4 4561 5 4655 6 7214 7 5851 22 4645 23 5948 24 4179 25 7626 44 4625 63 6348 82 4751 117 1818
17179873850 -0.2764383927225356 1.7762870679506677 -0.20667049182271985 92 77 59 0 4 4666 5 2032 6 1699 22 2052 23 3405 24 1474 25 3666 42 2040
17179873875 -0.23272914688630922 1.7991618370643494 -0.35314188342564956 32 23 7 0 4 4691 5 2063 22 4804 23 6087 42 2049
17179873885 0.05356023303975102 1.8384311098269326 -0.5861413416565421 148 121 88 0 4 4701 5 2064 23 6096
17179873891 -0.3189129122674017 1.8071599271525431 -0.2563746105471788 56 41 24 0 4 4707 5 2090 23 6107
17179874110 -0.36435491155137106 2.0403721341917618 -0.3206841932023562 67 49 28 0 4 4926 5 2394 23 6326 42 4882 60 4767 62 3622 78 2641 80 2258 98 2515 114 3165
85899348400 -0.9539673946352775 2.2495228082971406 0.7475801177912043 30 21 12 0 5 5283 22 5272 40 2554
403726932432 -0.9183864566951366 2.2541894909277977 0.5668807684582283 229 207 146 0 5 6790 42 7420 60 6356 78 6597 80 6972 96 6373 98 6786 114 7033 115 7730
85899348408 -1.0108568641679532 2.2570791724261556 0.7960907687790235 60 51 40 0 20 2488 22 5299 40 2571 42 2973
17179874426 -0.9911262967962877 2.2983280953665517 0.7029859625685344 53 36 19 0 4 5242 5 5355 6 2881 24 2536
107374189528 34.930250211766804 -5.322125453291422 1.2243237375557705 35 25 12 0 4 5756 5 5773 23 7037 43 7240 61 8256 63 6434 81 7227 99 7412 101 7812
107374187733 14.585319091314085 -1.394300989899738 -1.92716635006177 47 38 18 0 4 5781 5 5824 6 6684 43 5320 63 4440 81 7411 83 4680 99 7618
17179875024 22.965336020879842 -2.4561975899304826 4.429860567237734 40 44 9 0 4 5840 5 5830 23 7123
347892356293 42.090672349585525 -3.74877705126525 -6.863120496155338 88 89 66 0 4 5873 5 3874 43 5337 45 6707 81 5317 99 7510
17179875065 43.73125680076286 -3.8829059607465966 -6.487369242234767 14 16 4 0 4 5881 5 3873 99 5193
17179875082 14.66671666798008 -0.5373982970210988 -1.7693207050553983 70 56 30 0 4 5898 5 3917 6 4292 7 5447 23 7159 43 5484 45 6787 61 7171 63 4618 83 7578 99 7721 101 6942
17179875083 14.670855729110926 -0.5381594691457172 -1.7698691899386656 71 57 30 0 4 5899 5 3916 6 4291 7 5446 23 7158 43 5483 45 6786 61 7170 63 4617 81 5641 83 7577 99 7720 101 6941
17179875113 36.45239967257223 -2.572305231857004 2.331199255017241 63 48 26 0 4 5929 5 5937 6 6775 23 7193 43 7369 61 7113 63 6587 79 9068 81 7366 99 7578 101 7901
17179875114 14.646774289002943 -0.29376158037423283 -1.8321874418020796 117 102 64 0 4 5930 5 3966 61 7196 63 4662 81 5681
180388633421 0.2574089780488508 1.1583525162949997 0.5274522971753761 71 53 34 0 4 5998 5 7258 6 8294 8 7027 9 11780 24 7578 25 8370 26 7558 42 6989 43 8786 44 7866 45 8569 62 7581 64 8009 65 8440 82 8233 117 8270
17179875213 0.25682006521407585 1.227662715979628 0.5556337206812965 116 87 57 0 4 6029 5 6077 22 4238 23 5488 42 5915 43 7878 62 6707 116 5825 117 6064
17179875279 42.31334192657953 1.27770583606103 -7.89554965282473 12 13 2 0 4 6095 5 4270 43 5703 81 5702 99 7737
17179875435 0.009002206654686694 1.63011961118705 0.22228680425532035 92 70 46 0 4 6251 5 4595 6 4988 22 4594 23 7527 24 4111 25 6027 42 4458 43 6751 44 4535 60 1701 61 6738 62 5554 63 7605 80 1758 82 1654 98 1831 116 4242 117 1487
17179875481 -0.24475617074182363 1.695933496109786 -0.2764590836382068 53 43 26 0 4 6297 5 4685 6 1575 23 7586
17179875487 -0.13853022378155172 1.7329166463899237 0.44681966952971064 67 49 31 0 4 6303 5 6404 23 5986
240518173310 -0.5347779539523476 2.049349359099749 0.4714401345280174 59 46 32 0 4 6530 5 5026 22 6511 23 7798 58 2120 78 2430
17179876201 35.489412752091425 -4.153329498658968 0.8443173445165988 34 23 10 0 4 7017 5 5840 6 8149 23 8314 43 7296 61 8289 63 7754 81 7282 99 8738 101 7862
17179876255 36.68505619654491 -3.06025128715108 2.353391650646401 65 50 29 0 4 7071 5 7190 6 9032 23 8376 43 8469 63 7791 81 8431 99 8782 101 8539
197568506966 0.21039412419899636 1.2266219548805586 0.4423613468420597 92 70 45 0 4 7151 5 6074 6 6949 23 7328 25 7383 26 5914 42 7004 43 8809 44 6029 45 7190 46 11350 64 6640 65 7272 67 12854 80 6366 82 6281
17179876367 43.86337059378993 0.31962201857957445 -8.230240697475724 9 10 1 0 4 7183 5 6085 43 7467 81 7493 99 7697
17179876397 0.2134366322209128 1.3653088446347665 0.562564356135798 43 33 18 0 4 7213 5 7309 22 6119 23 7388 61 8862
270582948445 0.2159562474811971 1.3669444802750117 0.5621369468445234 41 31 17 0 4 7214 5 7308 6 7010 8 5290 24 6946 25 8413 26 5968 27 6897 42 7049 43 8843 44 6116 45 7260 60 6791 61 8861 62 7634 64 7557 65 7330 78 6044 80 7506 98 7292 100 7272 115 6275 116 6951 117 7864
197568508029 0.08177265717255638 1.4446955940187418 0.2952394107205601 61 44 25 0 4 7244 5 7334 22 7214 23 8536 24 6964 25 8433 42 7085 44 7275 45 8125 46 12413 63 8327 66 6275 67 12943 80 6456 82 6363 84 6114 102 4218
94489287741 0.06700153015182748 1.485967446201001 0.2863598827985226 95 71 44 0 4 7260 5 7347 6 8380 22 7229 23 8548 24 6977 25 8444 42 7094 43 8888 44 7281 45 8139 60 4236 61 8918 62 6826 63 8338 64 7576 80 6469 82 6379 98 1653 100 6133 115 1916 116 5934 117 6110
257698043886 -0.3063865977120554 1.8175143434828254 -0.12045020706581737 152 128 93 0 4 7381 5 6470 6 8509 22 7345 23 8676 24 7099 42 6316 60 6126 62 7025 80 6665 98 6494 100 4496 115 5096 116 4442
17179876732 -0.7978719591012412 2.1984894929910515 0.6275894931645322 53 42 26 0 4 7548 5 7617 6 7584 40 6390 42 6587 60 6296 78 6548 80 5426 96 4612 114 5384
17179876738 -0.8685187014036554 2.2090792762530294 0.6934435490619999 64 53 40 0 40 6396 42 6611 60 4926 76 1976 78 5071 96 1903
17179877205 -0.2841242803706274 1.823998676275425 -0.08283126720611302 38 31 19 0 4 8021 5 8055 22 7347 23 8677
360777260799 0.22999447301419695 1.1650466422941776 0.4337747300539294 58 44 31 0 4 8282 5 8321 6 9091 8 7030 23 9413 24 7979 25 8942 40 6891 42 8052 43 9641 44 7869 45 8570 60 7462 61 9355 62 8404 65 8442 78 7103 80 8137 82 8227 84 7935 98 7943 100 7939 102 7966 115 7968 116 8029 117 8263
94489288770 -0.0634877217962174 1.5218234944627476 0.08723043452919084 95 78 58 0 4 8326 5 8365 22 8258 23 9456
30064778647 -0.3137704786060127 1.8931941859659536 0.20951149923292237 140 109 71 0 4 8372 5 8415 7 7575 8 6519 22 7961 23 9214 24 7702 25 9080 26 4621 42 8157 44 7396 58 8227 60 8162 62 8198 64 7681 82 7660 96 8411 98 8672 100 8034 114 8848 115 8695 116 8116 124 8097
17179877712 45.14241139964816 -5.716663102716018 3.2990579013013375 87 84 39 0 4 8528 5 8548 43 9737 61 9901
420906803631 0.19884863645082257 1.202942699873425 0.37849250248048116 71 57 41 0 4 8552 5 8578 6 9558 22 8227 23 9419 42 8464 43 9814 62 8412 63 9356 78 7122 80 8852 82 8239 98 8623 100 7943 115 8635 116 8250 117 8264
94489288982 0.21572807379892442 1.2363234835597963 0.22423418964926412 121 97 66 0 4 8559 5 8327 22 8470 23 9643
94489289323 -0.12418652938186583 1.6437344122202706 -0.2517902392826271 127 104 72 0 4 8857 5 8863 22 8811 23 9902
21474837166 14.75495996072122 -0.36142185460503856 -1.6981392117526413 108 93 59 0 4 672 5 686 7 252 23 2154 43 2007 45 2130 61 1237 63 993 99 1767 101 1793
25769804207 35.71762868643332 -2.169108622789561 1.0774373186823045 116 97 72 0 4 719 6 431 7 99 43 1861 61 973 63 711 79 5775 81 1973 99 1222 101 4905
17179869927 35.68496962952979 -2.032687196623783 0.9786803400943658 42 29 12 0 4 743 6 456 7 3344 43 1884 61 4935 79 5786 81 1996 99 1260 101 4919
25769804358 35.86280730295996 -1.246754240225161 1.868402171289977 71 57 35 0 6 582 7 279 43 1991 61 1163 63 847 79 2206 81 2104 99 1395 101 1496
94489280819 42.15505652609036 -1.1632289788608985 -4.658885624383881 82 83 64 0 4 896 7 438 45 2168
17179870131 43.49991148066172 -0.8195444351560166 -6.4138992064227205 13 15 3 0 4 947 7 523 45 5159 83 4723 99 1409
17179870132 43.40098097198283 -0.8173992919862674 -6.402617841639485 14 15 3 0 4 948 7 522 45 5160 99 1410
25769808233 35.96647674782061 -0.5343034223663825 1.3715783696227175 98 82 58 0 4 962 6 4457 7 5514 24 3379 43 2104 61 1285 79 5961 81 2202 99 1531 101 5043
17179870172 35.93357361422592 -0.3682643054162115 1.2795663110125266 66 49 25 0 4 988 23 2490 24 84 61 1317 63 990 79 2395 81 2222 99 1564 101 1617
25769804527 36.03587409555922 -0.32009219885672896 1.005701636312441 50 35 17 0 4 993 23 2498 24 92 61 1329 63 996 79 5992 81 2232 101 1620
25769804559 36.0045110426965 -0.1224844929859684 1.176115861546647 109 91 66 0 4 1033 6 783 7 3541 23 2528 24 3410 43 2160 61 5131 63 1020 79 6018 81 2275 99 1615
17179870222 36.12024694332469 -0.1317852429109513 1.8015484400284238 73 58 38 0 7 471 24 115 63 1011 99 5574
17179870257 35.965731697502505 0.1793084182186064 1.0192138692698454 55 39 19 0 4 1073 7 541 24 160 61 1413 79 6064
98784250407 36.05735944943564 0.44189717632771985 2.1591643010602746 39 26 6 0 4 1115 23 2599 24 192 61 5190 63 1110 79 2558 99 1726 101 1735
25769804680 35.89292080115272 0.6719147081238234 1.291889617950703 108 86 56 0 4 1139 6 904 7 613 24 233 61 1490 63 1142 79 6127
17179870325 14.5443536927167 1.1065798700930842 -1.8162487977356776 63 51 20 0 4 1141 7 745 62 308 64 573
25769804692 67.34640923768968 0.26336578092531376 -1.0800146265649833 37 36 15 0 4 1157 6 916 7 635
261993010279 35.85159413913947 0.7620395585802978 1.685018474013209 73 56 36 0 4 1162 6 920 23 2637 24 248 43 2293 61 1509 79 6135 81 2399 101 5144
17179870356 35.914860212232995 0.852090747076321 2.0588713365074263 48 33 9 0 4 1172 24 264 63 1159 101 1777
94489281168 35.80308290682733 0.8558628819748749 1.8227877556924679 49 33 11 0 4 1173 24 268 61 1519 63 1162 81 2409 99 1797 101 1782
17179870361 35.946816365693536 0.8689673496005916 1.5949376299925433 50 35 16 0 4 1177 7 654 24 277
17179870466 41.84472414946915 1.660256171788294 -6.619809522531385 16 18 4 0 4 1282 7 818 61 1656
94489281314 70.32144895981357 2.2890492435952026 -0.8074653771973911 73 73 55 0 4 1334 6 4702 24 3602 43 2390 61 1587 63 4767 81 5668 99 1737 101 5124
25769804891 68.56045201689649 2.694811628668543 -0.9677958541119365 78 78 59 0 4 1359 24 445 43 2439 61 1648 63 1238 81 2415 99 1786 101 1768
25769804918 36.07226055370844 2.2926944893905072 2.740143753429578 68 47 17 0 4 1391 43 2557 63 1368 79 6325 81 2620 99 2046 101 5271
17179870588 36.04578918446742 2.380814140206631 1.49341057975624 97 77 52 0 4 1404 43 2577 61 1836 79 2985
17179870589 36.01221292945322 2.3768841602943387 1.1241528625689527 81 66 45 0 4 1405 6 1168 24 517 61 1837 62 179 63 1384 79 6342 99 2059 101 1971
17179870605 41.824490707442465 2.6035380825431127 -5.767002396467244 27 28 10 0 4 1421 7 902 45 2558
17179870610 69.25353053050152 3.3398263980597416 -1.99162498098807 19 19 7 0 4 1426 43 2506 61 5350 63 1296 81 2469 99 1844 101 5157
25769804969 35.97976400735896 2.5687693635633346 1.1313633548344633 41 27 9 0 4 1444 6 1193 24 537 43 2610 61 1866 62 205 63 1410 79 3023 81 2665 99 2100 101 2003
17179870631 41.62087705618765 2.7588030094598115 -5.689284809023811 70 71 54 0 4 1447 24 556 45 2564 61 5432 99 2018
